# .PCD v0.7 - Point Cloud Data file format
VERSION 0.7
FIELDS x y z intensity
SIZE 4 4 4 4
TYPE F F F F
COUNT 1 1 1 1
WIDTH 438
HEIGHT 1
VIEWPOINT 0 0 0 1 0 0 0
POINTS 438
DATA ascii
34.825001 -3.825 -2.175 255
35.725002 -3.825 -2.175 255
38.125 -3.825 -2.125 255
34.125 -2.5250001 -2.125 253
25.125 -2.2750001 -2.125 253
28.325001 -2.2750001 -2.125 254
21.025 -1.9250001 -2.125 252
20.825001 -1.875 -2.125 251
38.225002 -4.0750003 -2.075 255
40.875 -2.825 -2.075 249
45.924999 -2.7750001 -2.075 255
33.075001 -2.625 -2.075 252
38.075001 -2.5250001 -2.075 255
25.825001 -2.425 -2.075 252
28.225 -2.425 -2.075 253
42.475002 -2.325 -2.075 255
44.725002 -2.125 -2.075 255
45.325001 -2.075 -2.075 255
40.025002 -1.775 -2.075 255
40.775002 -1.775 -2.075 255
23.975 -1.6750001 -2.075 254
20.425001 -1.1750001 -2.075 254
26.925001 -0.57499999 -2.075 251
27.375 -0.52500004 -2.075 251
40.025002 -4.125 -2.0250001 255
39.275002 -4.0250001 -2.0250001 255
39.775002 -2.7750001 -2.0250001 249
58.424999 -2.7750001 -2.0250001 255
54.075001 -2.7250001 -2.0250001 255
45.575001 -2.675 -2.0250001 255
45.475002 -1.1750001 -2.0250001 255
57.525002 -1.1750001 -2.0250001 254
25.275 -0.52500004 -2.0250001 248
28.825001 -0.42500001 -2.0250001 253
42.725002 -4.1750002 -1.975 255
43.825001 -4.1750002 -1.975 255
30.625 -2.875 -1.975 240
44.525002 -2.875 -1.975 255
52.625 -2.825 -1.975 255
53.825001 -2.825 -1.975 255
50.025002 -2.7750001 -1.975 255
68.525002 -2.2750001 -1.975 242
31.375 -1.275 -1.975 243
48.475002 -1.225 -1.975 255
49.924999 -1.225 -1.975 253
43.075001 -1.1750001 -1.975 255
20.075001 -0.67500001 -1.975 246
39.025002 -0.52500004 -1.975 255
30.325001 -0.47499999 -1.975 254
31.025 -0.47499999 -1.975 255
44.424999 -4.1750002 -1.9250001 255
52.325001 -4.125 -1.9250001 255
37.924999 -2.9750001 -1.9250001 253
43.424999 -2.875 -1.9250001 255
44.174999 -2.875 -1.9250001 253
46.575001 -2.825 -1.9250001 255
26.375 -1.4250001 -1.9250001 251
46.625 -1.4250001 -1.9250001 255
48.625 -1.325 -1.9250001 255
43.525002 -1.275 -1.9250001 249
27.375 -0.42500001 -1.9250001 249
51.424999 -4.1750002 -1.875 253
44.975002 -4.125 -1.875 255
48.924999 -4.125 -1.875 255
51.125 -4.125 -1.875 255
55.025002 -4.125 -1.875 255
28.725 -1.475 -1.875 251
50.525002 -1.275 -1.875 255
38.825001 -4.1750002 -1.825 245
47.525002 -4.1750002 -1.825 246
38.924999 -4.125 -1.825 246
54.875 -4.125 -1.825 255
60.525002 -4.125 -1.825 255
54.275002 -4.0750003 -1.825 255
34.725002 -2.9750001 -1.825 255
31.575001 -2.925 -1.825 255
48.775002 -4.2750001 -1.775 248
49.475002 -4.2750001 -1.775 249
52.924999 -4.2750001 -1.775 255
51.825001 -4.2249999 -1.775 252
54.424999 -4.2249999 -1.775 255
57.674999 -4.2249999 -1.775 255
41.475002 -4.1750002 -1.775 255
44.025002 -4.125 -1.775 247
56.025002 -4.125 -1.775 255
52.174999 -4.0750003 -1.775 255
55.225002 -4.0750003 -1.775 255
58.375 -4.0750003 -1.775 255
60.825001 -4.0250001 -1.775 255
68.675003 -1.825 -1.775 255
43.674999 -4.2750001 -1.725 251
47.025002 -4.125 -1.725 255
56.225002 -4.0750003 -1.725 255
60.325001 -4.2249999 -1.6750001 255
39.625 -4.125 -1.6750001 251
36.625 -4.125 -1.625 250
41.725002 -4.125 -1.625 250
43.174999 -4.125 -1.625 249
46.075001 -4.125 -1.625 249
45.325001 -4.0750003 -1.625 252
53.825001 -4.0750003 -1.625 254
124.025 -1.725 -1.625 255
124.075 -1.6750001 -1.625 184
43.025002 -4.4250002 -1.575 255
50.875 -4.4250002 -1.575 255
55.875 -4.0750003 -1.575 255
124.175 -1.875 -1.575 255
124.575 -1.625 -1.575 255
50.975002 -4.4749999 -1.525 255
45.375 -4.4250002 -1.525 255
54.375 -4.125 -1.525 255
54.475002 -4.0750003 -1.525 255
124.375 -1.725 -1.525 229
15.825 -0.72500002 -1.525 250
46.174999 -4.5750003 -1.475 252
36.875 -4.5250001 -1.475 252
52.674999 -4.4250002 -1.475 255
124.525 -1.625 -1.475 255
26.675001 -0.77500004 -1.475 252
49.725002 -4.4749999 -1.4250001 255
124.225 -1.775 -1.4250001 255
124.475 -1.725 -1.4250001 255
38.275002 -0.77500004 -1.4250001 255
37.575001 -0.72500002 -1.4250001 255
31.525 -0.67500001 -1.4250001 253
59.825001 -4.4250002 -1.375 255
124.475 -1.625 -1.375 255
19.225 0.075000003 -1.375 218
124.475 -1.625 -1.325 255
124.475 -1.575 -1.325 255
122.675 -2.125 -1.275 255
122.525 -1.975 -1.275 255
36.625 0.075000003 -1.275 218
122.525 -2.175 -1.225 190
122.425 -2.0250001 -1.225 105
122.475 -1.9250001 -1.225 217
122.525 -1.825 -1.225 255
124.375 -1.6750001 -1.225 255
45.475002 0.125 -1.225 198
50.875 -4.0750003 -1.1750001 255
122.625 -2.175 -1.1750001 206
122.475 -1.775 -1.1750001 177
48.674999 0.025 -1.1750001 190
56.674999 -4.0250001 -1.125 255
122.325 -1.9250001 -1.125 103
122.375 -1.9250001 -1.125 103
122.625 -1.9250001 -1.125 100
29.125 -0.075000003 -1.125 248
16.825001 -0.025 -1.125 249
27.725 -0.025 -1.125 237
20.425001 0.175 -1.125 253
41.375 -4.0250001 -1.075 248
122.425 -1.825 -1.075 103
124.425 -1.6750001 -1.075 255
24.825001 -0.175 -1.075 254
24.425001 -0.075000003 -1.075 254
25.275 0.22500001 -1.075 253
37.575001 -4.7249999 -1.025 255
41.525002 -4.6750002 -1.025 255
39.475002 -4.3250003 -1.025 255
38.325001 -4.2249999 -1.025 255
122.725 -2.125 -1.025 105
124.175 -1.725 -1.025 207
122.625 -1.6750001 -1.025 209
88.825005 -0.375 -1.025 81
88.775002 -0.27500001 -1.025 105
30.375 0.175 -1.025 234
42.575001 -4.8250003 -0.97500002 255
37.875 -4.125 -0.97500002 255
49.875 -4.0250001 -0.97500002 255
56.625 -3.9750001 -0.97500002 255
122.575 -2.0250001 -0.97500002 69
122.625 -1.9250001 -0.97500002 88
122.625 -1.825 -0.97500002 96
36.075001 0.27500001 -0.97500002 253
38.924999 -4.7750001 -0.92500001 255
56.775002 -4.7249999 -0.92500001 255
122.575 -2.175 -0.92500001 105
122.625 -2.075 -0.92500001 78
122.675 -1.975 -0.92500001 71
122.675 -1.725 -0.92500001 99
124.275 -1.6750001 -0.92500001 104
124.525 -1.575 -0.92500001 211
124.375 -1.525 -0.92500001 242
30.175001 0.27500001 -0.92500001 253
32.475002 0.27500001 -0.92500001 255
124.075 -2.4750001 -0.875 105
124.125 -2.4750001 -0.875 105
124.075 -2.425 -0.875 105
123.975 -2.325 -0.875 105
123.925 -2.2750001 -0.875 105
122.675 -2.125 -0.875 79
122.675 -1.775 -0.875 102
124.325 -1.6750001 -0.875 103
25.175001 0.22500001 -0.875 250
124.075 -2.5250001 -0.82499999 178
123.925 -2.325 -0.82499999 104
122.675 -2.175 -0.82499999 102
122.625 -2.0250001 -0.82499999 81
122.675 -2.0250001 -0.82499999 85
122.625 -1.9250001 -0.82499999 77
122.725 -1.775 -0.82499999 99
124.225 -1.775 -0.82499999 104
124.275 -1.775 -0.82499999 105
124.425 -1.575 -0.82499999 104
88.775002 -0.22500001 -0.82499999 92
63.325001 0.22500001 -0.82499999 255
22.825001 0.32500002 -0.82499999 254
45.424999 -4.875 -0.77500004 255
123.925 -2.425 -0.77500004 103
123.975 -2.375 -0.77500004 105
123.525 -2.2250001 -0.77500004 104
122.575 -2.175 -0.77500004 103
122.625 -2.175 -0.77500004 101
122.525 -1.975 -0.77500004 92
122.575 -1.825 -0.77500004 75
124.375 -1.575 -0.77500004 103
51.475002 -4.875 -0.72500002 255
124.075 -2.325 -0.72500002 102
122.625 -2.0250001 -0.72500002 101
122.525 -1.975 -0.72500002 100
122.575 -1.975 -0.72500002 100
122.625 -1.9250001 -0.72500002 99
124.275 -1.725 -0.72500002 103
124.325 -1.6750001 -0.72500002 101
124.325 -1.475 -0.72500002 236
15.475 -0.025 -0.72500002 255
23.725 0.32500002 -0.72500002 250
49.924999 -4.875 -0.67500001 255
54.375 -4.875 -0.67500001 255
40.525002 -4.8250003 -0.67500001 250
44.674999 -4.8250003 -0.67500001 250
59.775002 -4.8250003 -0.67500001 255
123.925 -2.4750001 -0.67500001 105
122.475 -1.975 -0.67500001 104
122.525 -1.975 -0.67500001 102
122.525 -1.875 -0.67500001 86
124.425 -1.6750001 -0.67500001 102
124.575 -1.575 -0.67500001 101
124.425 -1.525 -0.67500001 102
12.675 0.27500001 -0.67500001 251
123.775 -2.2750001 -0.625 103
122.575 -2.125 -0.625 71
122.425 -1.975 -0.625 104
124.475 -1.875 -0.625 105
122.575 -1.775 -0.625 101
44.025002 -4.9250002 -0.57499999 255
46.475002 -4.9250002 -0.57499999 255
49.125 -4.9250002 -0.57499999 255
40.625 -4.875 -0.57499999 255
123.825 -2.425 -0.57499999 103
123.975 -2.425 -0.57499999 99
123.975 -2.375 -0.57499999 99
123.875 -2.2250001 -0.57499999 103
122.675 -2.075 -0.57499999 77
122.625 -1.775 -0.57499999 68
124.325 -1.725 -0.57499999 105
124.275 -1.6750001 -0.57499999 104
82.474998 0.025 -0.57499999 212
26.975 0.32500002 -0.57499999 253
123.975 -2.4750001 -0.52500004 133
123.975 -2.425 -0.52500004 99
122.575 -2.2250001 -0.52500004 99
122.525 -2.125 -0.52500004 95
122.575 -2.075 -0.52500004 100
122.575 -1.875 -0.52500004 99
122.575 -1.825 -0.52500004 99
124.225 -1.625 -0.52500004 103
124.525 -1.575 -0.52500004 99
52.075001 -4.875 -0.47499999 255
124.025 -2.425 -0.47499999 103
122.975 -2.175 -0.47499999 100
124.425 -1.625 -0.47499999 104
124.275 -1.575 -0.47499999 104
19.825001 0.32500002 -0.47499999 246
52.625 -4.9250002 -0.42500001 255
124.025 -2.4750001 -0.42500001 102
124.325 -1.9250001 -0.42500001 152
124.475 -1.9250001 -0.42500001 105
124.425 -1.625 -0.42500001 104
124.325 -1.575 -0.42500001 104
124.375 -1.575 -0.42500001 104
124.325 -1.525 -0.42500001 103
124.425 -1.475 -0.42500001 170
18.025 0.32500002 -0.42500001 213
52.725002 -4.9250002 -0.375 255
124.025 -2.375 -0.375 101
124.075 -2.2250001 -0.375 187
122.625 -1.775 -0.375 232
124.475 -1.625 -0.375 105
88.775002 -0.375 -0.375 255
46.674999 -4.9749999 -0.32500002 255
124.425 -1.875 -0.32500002 105
124.475 -1.875 -0.32500002 191
19.625 0.42500001 -0.32500002 253
46.225002 -4.9749999 -0.27500001 255
83.825005 0.375 -0.27500001 255
20.075001 0.42500001 -0.27500001 252
43.375 -4.9749999 -0.22500001 255
45.825001 -4.9749999 -0.22500001 255
57.825001 -4.9749999 -0.22500001 255
57.975002 -4.9250002 -0.22500001 255
124.425 -1.625 -0.22500001 231
124.325 -1.575 -0.22500001 255
83.724998 0.025 -0.22500001 193
44.775002 -4.9250002 -0.175 255
124.075 -2.375 -0.175 227
18.875 0.375 -0.175 254
41.575001 -4.9749999 -0.125 255
82.775002 0.075000003 -0.125 255
17.675001 0.375 -0.125 253
21.125 0.42500001 -0.125 253
41.875 0.42500001 -0.125 255
41.825001 -4.9250002 -0.075000003 255
44.125 -4.9250002 -0.075000003 255
11.575 0.375 0.075000003 255
24.775 0.375 0.075000003 255
26.475 0.42500001 0.075000003 255
20.775 0.375 0.125 255
9.9250002 0.125 0.22500001 242
82.675003 -4.9250002 0.27500001 208
59.875 -4.875 0.27500001 255
29.575001 0.42500001 0.27500001 253
15.575 0.375 0.32500002 254
53.625 -4.9749999 0.375 255
5.875 0.025 0.375 254
6.5250001 0.125 0.375 255
14.525001 0.125 0.375 222
17.625 0.175 0.375 220
31.325001 0.22500001 0.375 254
34.275002 0.22500001 0.375 254
23.375 0.32500002 0.375 241
53.825001 0.32500002 0.375 255
47.875 0.075000003 0.42500001 255
7.8250003 0.125 0.42500001 255
11.475 0.27500001 0.42500001 235
18.125 0.27500001 0.42500001 201
83.875 0.42500001 0.47499999 255
41.174999 -4.9250002 0.52500004 255
5.625 0.175 0.52500004 255
46.875 -4.8250003 0.57499999 252
53.775002 -4.9250002 0.625 253
44.625 -4.8250003 0.625 255
49.924999 -4.8250003 0.625 255
83.724998 0.375 0.625 255
27.125 -0.025 0.67500001 255
8.9250002 0.125 0.67500001 243
52.275002 -4.875 0.72500002 255
13.375 -0.075000003 0.72500002 255
45.775002 -4.875 0.77500004 255
19.375 -0.125 0.82499999 253
39.825001 -4.7750001 0.875 255
31.275 -0.075000003 0.875 255
43.525002 -4.7750001 0.92500001 255
20.925001 -0.175 0.97500002 255
49.625 -4.7249999 1.075 255
47.625 -4.6750002 1.075 255
41.575001 -4.625 1.075 243
49.075001 -4.625 1.075 255
48.575001 -4.6750002 1.125 250
36.625 -4.625 1.125 235
47.275002 -4.5750003 1.125 250
48.625 -4.5250001 1.125 255
48.975002 -4.4749999 1.125 249
41.275002 -4.4250002 1.125 237
53.025002 -4.4250002 1.125 255
55.575001 -4.4250002 1.125 255
59.075001 -4.4749999 1.1750001 255
35.275002 -4.4250002 1.1750001 249
41.725002 -4.4250002 1.1750001 245
52.075001 -4.4250002 1.1750001 251
54.775002 -4.4250002 1.1750001 250
55.424999 -4.4749999 1.225 253
43.375 -4.4250002 1.225 252
53.575001 -4.4250002 1.225 252
55.225002 -4.4250002 1.225 255
60.424999 -4.4250002 1.225 255
63.674999 -4.375 1.225 255
38.174999 -4.5750003 1.325 245
54.174999 -4.5750003 1.325 255
60.674999 -4.5750003 1.325 255
45.825001 -4.4749999 1.325 252
43.075001 -4.3250003 1.325 243
47.475002 -4.3250003 1.325 249
54.375 -4.5750003 1.375 255
55.075001 -4.5750003 1.375 255
47.525002 -4.375 1.375 249
51.475002 -4.375 1.375 253
55.225002 -4.375 1.375 255
38.625 -4.375 1.4250001 254
50.825001 -4.375 1.4250001 251
45.025002 -4.2750001 1.4250001 255
23.875 -0.075000003 1.475 251
44.775002 -4.4250002 1.575 255
39.375 -4.375 1.575 255
23.175001 -0.32500002 1.725 252
27.075001 -0.32500002 1.775 255
17.225 -0.42500001 1.825 255
39.275002 -4.2249999 1.875 255
35.625 -4.1750002 1.9250001 255
34.875 -4.125 1.9250001 255
20.225 -0.52500004 1.975 254
27.825001 -0.625 2.0250001 254
16.325001 -0.67500001 2.075 255
33.525002 -0.97500002 2.125 255
33.225002 -0.72500002 2.125 255
33.174999 -0.67500001 2.125 255
32.924999 -0.92500001 2.175 251
36.775002 -0.92500001 2.175 250
36.174999 -0.875 2.175 225
64.224998 -0.82499999 2.175 255
26.225 -0.72500002 2.175 255
27.425001 -0.72500002 2.175 254
41.924999 -0.92500001 2.2250001 254
30.325001 -0.875 2.2250001 255
44.674999 -0.875 2.2250001 255
35.375 -3.675 2.2750001 255
30.675001 -0.875 2.2750001 255
39.575001 -0.875 2.2750001 213
49.174999 -0.77500004 2.2750001 255
35.275002 -3.625 2.325 255
20.025 -1.125 2.325 255
31.875 -3.425 2.375 255
109.375 -0.67500001 2.375 248
74.825005 -0.72500002 2.425 255
91.325005 -0.67500001 2.425 252
21.625 -1.6750001 2.5250001 255
26.275 -1.875 2.575 255
35.575001 -1.6750001 2.575 255
37.075001 -1.6750001 2.575 255
33.475002 -2.175 2.625 255
36.875 -2.075 2.625 255
37.725002 -1.9250001 2.625 255
35.125 -1.725 2.625 255
27.275 -2.4750001 2.675 253
26.125 -2.2250001 2.675 254
34.725002 -2.2250001 2.675 255
48.674999 -2.2750001 2.7250001 255
